    44.19519322093000     -0.5177189655520000       4.249071283053000    
    104.5578749472000       47.57093781294000       251.8321543654000    
   -1.672567845959000      -6.988513198250000       59.59682974486000    
    562.6542056594000       573.3468752957999       1083.458196896000    
    1391.023058333000       1202.852765473000       1366.405165493000    
    865.5177225304000       490.8569965407000       264.1245070494000    
    92.26825910468000      -1.919174536731000       2.433798234565000    
    3088.472665788000       3078.170968997000       3120.745270196000    
    2317.609486791000       61.35905307808000       4.499041946683000    
   -3.933111150027000      0.3973398727386000       1.056811653614000    
    47.39020983146000       400.4166286688000       537.9913979994000    
    119.2524417273000      -1.643108888255000       61.08816464876000    
    228.0538917934000       374.9604866753000       54.84481916029000    
    77.42136712639000       34.85580660371000       490.1567287147000    
    325.3644986592000       111.4695417336000       1005.416980574000    
    930.7063818086999       1096.925055372000       909.3079173256999    
    293.8274728479000       219.4729526506000     -0.2931896732852000    
    10.58191300020000       1.410834788020000       3047.012047322000    
    2988.052704651000       3071.943143716000       2445.315121239000    
    103.7580666422000       3.701049596662000      -1.923639834658000    
   -1.427968638273000       2.973971308430000       2.446696733591000    
    337.4859541809000       494.4634170369000       255.2720262173000    
    66.97501032733000       88.53910437028000       165.5432457004000    
    36.98698386280000       252.5051728283000       138.0281458341000    
    50.51456227939000       99.08529266338999       28.77715759936000    
    50.94846069412000       394.7157928316000       493.4608683098000    
    830.2558093472001       770.0794143565000       297.0973822368000    
    265.1975808637000       8.030084138056001       7.448006852357000    
   -1.243124952289000       2990.155837562000       2818.285668702000    
    2909.360422011000       2418.359455959000       156.1342970780000    
   -2.056244892956000     -0.6015179501054000       2.122806298522000    
   -2.639809902313000       4.535993061053000       181.9239182276000    
    613.2812936954999       418.2173608033000       146.4424572728000    
    7.444141724164000       48.28293109341000       8.997773677289999    
   0.1751261787731000      -4.756192957649000      -3.691782134735000    
    2.368492039134000       81.05531760341999       226.1344203848000    
    695.8532370430000       483.9220139322000       690.0000127956999    
    796.0207038991000       776.1721885580000       550.4281486655000    
    2.024538920017000      -8.760072370261000      -4.172145158464000    
    2927.548934576000       2606.175888450000       2729.970095356000    
    2485.457187373000       260.7690320285000      -1.549763818278000    
  -0.3291107393838000       2.107405631482000      -1.076250859868000    
    15.18588634610000       204.1763396404000       359.9084286965000    
    337.5772761453000       127.4462334194000      -20.47848891047000    
    548.0738573824000      -3.615050296310000       8.430718694287000    
   -2.275802077016000       3.143531698094000       1.631516035800000    
    17.15912560685000       266.5018996739000       155.9783084671000    
    521.9023970040000       905.0164766404000       726.7189281399000    
    893.0886376764000       336.2003605252000      -8.679731791999000    
    1.100261586494000      -5.995173141976000       2875.695435559000    
    2463.206556580000       2642.087700004000       2193.894283312000    
    132.5085396704000      -2.366000123639000     -0.5526658728934000    
    1.854057106995000      -5.709169968832000       103.9565298633000    
    224.3130263977000       147.4773231076000       216.3255609416000    
    39.31960644113000       120.5949800038000       988.7407823111000    
   -2.924426299310000       4.551931910506000      -5.095278379154000    
    2.957322736091000     -0.5279502415381000      -2.597087442997000    
    325.3964507419000       201.2046895422000       239.2214613742000    
    184.8802201218000       704.5738598807000       1451.195884344000    
    414.9404121100000       17.36722044211000       11.75468570706000    
   -6.470811506617000       2848.783518049000       2398.792226712000    
    2462.352877184000       1641.371276477000     -0.9723043427003000    
    2.622855938196000     -0.2945662189926000      -2.089285550061000    
    151.4966984572000       438.8289242250000       230.4264575742000    
    381.9490565185000       372.4530881242000       73.81534741181000    
    596.5822066831000       290.4131980485000       7.194669539143000    
   -9.229261126720001       7.924204072054000     -0.9479288441832000    
  -0.1842990294709000       1.184542481361000      -2.540327130472000    
    44.16182827523000       28.13398810128000       10.86579950826000    
    405.4257605731000       1263.472852538000       138.5875804061000    
    12.03350001307000      -6.404967325866000      -6.277380472592000    
    2849.496986192000       2245.906685980000       2387.546386465000    
    1385.068604975000      -4.386108148913999      -1.835301469086000    
    2.384474962921000      -3.486613529363000      -1.118926401757000    
    140.4266973984000       455.1122091133000       242.9027789903000    
    14.41261436878000       1.951946439536000       50.53196518923000    
    97.44568511833999       2.586197105652000       1.139545578305000    
  -0.7792544257719000       3.760195100964000      -3.214212325036000    
   0.7657767051615000      0.9972611111658000      -2.420935796862000    
    19.47448834847000      -6.557495924567000       398.5527902025000    
    649.5352437627000       100.7582949925000      -7.010937954920000    
   -10.11374247355000      -6.187147929252999       2866.287878693000    
    1780.876626516000       2108.018695706000       1151.071382840000    
   0.4521358728856000      -1.072870735860000      0.1292639470155000    
  -0.7967643249109000      -2.884453955625000      -1.213083641810000    
   -3.075831007035000      0.1068469535556000       1.252150619768000    
   1.2400583957492000E-02   30.21607981645000      1.8351796667517000E-02
   -1.054703024326000       1.295748753385000     -0.9970332604356000    
   -1.226217567542000      0.1648198494536000     -0.9485263864393000    
    1.857187035765000       2.050542598037000      0.6673002688245999    
    411.9950494353000       271.8078189898000       756.4096604916999    
    90.20192629895999       16.71077604917000       7.485869763077000    
   -6.235836904720999       2878.381788402000       1052.744471821000    
    1144.903929644000       841.5834308870000       8.863641295666000    
   -1.014834085662000      0.1806294655190000       3.108349420868000    
   -3.031442817761000     -2.1482943868976999E-02   1.471990529072000    
  -0.9029450973217999       14.42592603268000      2.9965575423823998E-02
    19.78909113246000       3.048291389346000     -0.2494675120973000    
  -0.9506901259161999      0.9068874441213000      0.5131215112978000    
    1.477097098190000     -0.3732850857586000     -0.1211763488683000    
   1.6947663560954999E-02  -2.123960849755000       77.42247510081999    
    289.9678019819000       725.1946037549000       167.2255628848000    
   -16.28027374471000       2.478460524901000      -5.845052897635000    
    2864.613543139000       437.3932250884000       212.9866055446000    
    408.6795568949000      -1.440936658761000       3.905148557203000    
   -4.324405126757000       175.7328313946000       282.6451918966000    
   0.1312844168933000      -1.755515242903000       3.328380202167000    
    14.48972869522000       22.82717512674000     -0.7701506347741000    
   -2.495458141299000      0.1147051193689000       1.044611053185000    
  -0.6773188642329000     -7.8062138175169993E-02 -0.6401950087378000    
   0.6243350706474000      -2.417822409843000     -0.5017642282853000    
   0.5045376971202000      -3.153909660324000       143.6556268471000    
    652.5914724789000       238.6370641680000       12.95491455371000    
   -11.73683028629000      -4.489670622229000       2811.387329624000    
    164.5398229704000       5.187344035294000       16.89639467414000    
   -1.443317955042000      0.9975643167653000       2.504030976531000    
   -4.869054068045000       258.6995307267000       96.75277317263999    
   -1.306221654800000      1.8994454317439000E-02  0.5950700644863000    
  -0.9422684012174000      6.5121610684685000E-02  4.0179166379484002E-02
   0.4620343988964000     -0.2005363475664000      0.4402670501343000    
   1.6645440444567000E-03 -1.4545957432019000E-02 -0.9940587464417000    
    2.929329996470000     -0.3517539935445000     -0.4404969431329000    
    2.486086213236000       39.42123905979000       462.1097712346000    
    278.4811439742000      -3.092381043122000      -2.367599871899000    
   -2.275872891969000       2716.281558825000       96.70695448913000    
    9.559351807928000       6.272700264412000      3.0343463708317000E-02
  -0.3327353924445000     -0.7274266604248000      0.2480634653459000    
    11.20159583481000       26.43229477418000      -1.406581380565000    
  -9.7164085380435999E-02   14.90896209743000       9.410652618771000    
    1.471275688203000       1.763387315898000     -0.7692828004134000    
  -0.7448808220531999     -0.1248207616082000      0.7724201906517000    
   0.7198655531228000     -2.8103392824071999E-02  0.4418115076566000    
  -0.1339160758372000     -0.8254805648615999       5.768711304812999    
   -3.441171784639000       199.7471970125000       247.8920071463000    
   -10.69503767164000       13.73607232361000      0.1687001874409000    
    2588.057999185000       45.71557592157000      -30.40292621846000    
   -6.110580924408000       1.558678759669000      -2.739072969094000    
   0.6836178684388000      0.9127348585030000      0.3736914152496000    
    1.119697146030000      0.5324548726717999     -0.9681773463844000    
    1.718940396805000     -0.2597013301330000      -2.018915504619000    
   -1.527497985705000       1.162111740516000      3.1880773747292999E-02
   0.1421086256144000      -1.662887068003000      -1.558601731554000    
   0.5428439271084999      -2.884130950920000      0.4288373373667000    
   0.6166967853348000       3.757068421174000      0.5892131359336999    
    131.7142348757000       8.670361692981000       3.000525367669000    
    10.20070268341000       2.614903360943000       2444.110848823000    
   -17.97345033217000       27.87780649501000       2.166276814992000    
    1.680036908026000     -2.2625347019465000E-02  0.2044167957532000    
  -0.6130430052017000      0.7346833424692000      -1.270518154215000    
   0.5522517949467000      0.6079607999441000      -1.005008536767000    
  -0.1062390489818000      0.2589663566116000       1.032459578814000    
   5.6012283382991995E-02  0.4337537731753000     -0.1708179658825000    
    2.910200749389000       1.594064404630000     -0.7153281178646000    
    2.665426569538000       1.280237155645000     -0.9088311214415000    
    5.289451134494000       2.931241859005000       39.43956321712000    
    13.00742839151000      -7.848764722277000      -4.397600557624000    
    5.903460646505000       2306.381434411000      -16.61967796147000    
    2.012739330596000     -0.8387323811714000      -1.707588088657000    
    2.556990415280000     -0.8752866577882999      -1.124277699468000    
   0.8214600020159000      -1.063002886719000      -1.154464280377000    
  -0.2993852929608000      0.5071464669540999       1.237723070743000    
    1.292423548833000      0.1860369716151000      -1.086888481191000    
   0.3891233726120000      -1.379613243411000      -3.111374299350000    
   -1.600600779492000      9.0231806962889002E-02  0.1860658357698000    
   0.9840053195566000      -1.868169376442000       16.71171908941000    
    74.29080033501999       171.4680198296000       153.6380250142000    
    13.70530488789000      -4.404048465114000       11.15937816190000    
    2196.094220905000       106.8753653487000       67.59219158848001    
   -2.399653827636000      -3.859608944763000       3.178933034925000    
   -2.067478262186000      0.2367070777194000     -0.8148399316461000    
    2.001767331835000       1.857712245935000      0.4959313608277000    
  -0.2273189643787000      -1.153193945252000      -2.421917486668000    
  -0.8465686294309001       1.597925463062000      -1.042847692924000    
    1.598963816854000       65.59356391586999       3.351035860970000    
   -2.256879170714000     -0.4413478280535000      -3.145687173153000    
   0.8027204689728000       8.215953260014999       319.2701659140000    
    399.1926404296000       333.0006361479000      -14.73514781347000    
    5.483598113419999       18.01756454033000       2127.918472482000    
    282.2229712669000       159.2191853313000      -3.595817797939000    
    1.284476631630000      5.1262164268556995E-02   1.407703656106000    
   -1.914759394060000      0.2256926138379000      -1.605717366642000    
   -2.801059471492000      0.2248127061401000       4.827093091508000    
    2.817818423101000       2.127528176927000      7.7040216789816998E-02
   -1.297951117684000     -0.6237377578112000       1.968908287749000    
    8.627523452504999       1.820185260366000     -0.8042651793125000    
  -0.4961646619586000       2.965342488080000      -2.634974415220000    
  -0.3180576941761000       411.5372396884000       881.3817825400999    
    435.3831466190000     -0.8386206632141000       3.411837957281000    
    23.46340129692000       2105.657631804000       430.2611445365000    
    288.4519268708000       10.08798248743000      -3.331254935901000    
  -0.1674373239692000       1.146735993421000     -0.8841352639765000    
    1.183068553205000      0.6623888225570000      0.5121125769576000    
    1.828223934278000       1.716923509070000     -0.7195940656459000    
    1.335108043495000       1.033808990296000     -0.4636304925727000    
   0.3605073712374000      0.5643256651470000      -1.117364650443000    
    2.448593092497000      0.6760364282277000      -2.935083174144000    
    5.211346177675000       1.717982133386000      -10.16680967661000    
    342.5369632641000       1062.344025932000       522.6055104476000    
   -4.411435057538000     -0.4931451829407000       22.92484438118000    
    2122.207250446000       590.5408798584999       702.3238509527999    
    6.319452625579000      -5.900478348532999      -1.543135825314000    
    2.573648955044000      -1.214700431301000       2.038309277154000    
    2.947279224162000      -3.296496382041000      0.4839822782680000    
   9.6655625305512999E-02  -2.397615350297000     -5.5963909099575999E-02
   -4.021269871201000      -1.899339951222000       1.706858124054000    
   0.4928230461594000      -2.510071598285000     -0.1107497605201000    
   0.9487821325646000      -3.253526651809000       1.968477754909000    
    3.171837109906000      -3.405272905772000       816.8152813580000    
    1151.091478427000       368.9831294647000       5.281612326990000    
    8.106037948053000       13.73735736242000       2164.452449716000    
    793.0145510379000       1125.342402007000       10.11536765618000    
  -0.8164850321379999      -1.540500723763000       2.818754857706000    
   -1.412371946959000     -0.1501806497138000     -0.4179560802988000    
   -1.796255584356000       2.505074315860000       1.069334262533000    
  -0.1628252982311000       2.788964327790000       1.990130524895000    
   -2.114360087312000      0.2870314114673000     -0.5102983684041000    
  -0.3186699481378000       1.694645525156000     -0.4910011518816000    
    1.187674624964000       1.606872620917000      -2.612646123059000    
    28.33683679104000       1078.034710716000       1159.349165692000    
    123.6204055444000      -5.191101686083000       10.51499286018000    
   -1.608041694243000       2219.689447663000       997.6392975263000    
    1285.326284203000       13.95722101050000      -6.175475837993000    
    2.186789492172000     -0.6009456014854000      0.1674006749898000    
   -1.398673148201000     -0.7566979723642999       2.632028513673000    
   -2.568661085300000      -1.063642070759000     -0.1544029588442000    
  -0.8122298334377001     -0.2811878477930000     -0.5038448202923000    
   0.6009946530982000      0.2508768809437000     -0.3655365577341000    
    2.034030220275000      -3.024234328190000     -0.1730857500789000    
   -4.224609028433000       18.32078709920000       626.7768525276999    
    1520.403392416000       1206.729329287000       186.7410812867000    
   -6.633465237924000      -2.448791728260000      -15.20119304113000    
    2278.538616559000       1210.068963132000       1269.820883450000    
    12.34098082391000      -2.177473561850000       2.546215161044000    
   2.1071521916882999E-02  -1.147505945079000       1.385076725368000    
    1.055757478328000      -2.739943015655000       2.701746769776000    
   0.9148328759982000     -0.9767985789590000     -0.7217632179115000    
   -2.510230757049000       1.036653728072000       1.410743357217000    
   0.1387879941301000     -0.5969602943880000      -1.608927098661000    
    3.299647215327000       108.2134405311000       757.6480931167000    
    663.8137601275999       1417.962428246000       1177.245698780000    
    564.2969609853000       235.2526124758000       36.00086277778000    
   -8.732906540285001      -18.35534925509000       2332.724647788000    
    1475.049513550000       1145.741797942000      0.2360152064458000    
   -1.152973134324000      -2.259963625241000       1.794894593724000    
  -0.9715800088070000      0.7435161928628000     -0.2925158840966000    
    1.540166943595000     -0.5655505295581000      -2.950951722944000    
    3.158918916541000       2.389874521664000      0.9484397862978999    
   -2.858970857668000       1.187439537507000      -3.691507603925000    
    1.841207678251000       3.039233956490000       182.3084246946000    
    1600.285204775000       1832.296123434000       1416.240176862000    
    1619.405393224000       588.9990044835999       358.3834833115000    
    214.3179042306000       87.31002181642999      -3.087108770506000    
   -8.418454107272000       2371.268244884000       1768.438513318000    
    945.5023374100999       2.049487162502000     -0.8322624449775999    
    1.433861498037000      -1.702195676717000       1.336353450979000    
  -0.7997341794509000      -2.839829671476000      0.2871603746952000    
  -2.4269357128679999E-02   3.038886863817000      -4.436868256269999    
  -4.5943649923128001E-02 -0.7640651862972000      3.5152197436273000E-02
   0.6666653627904000       1.574321758469000      -10.43704681192000    
    151.0767824507000       703.7107623598999       1891.255823746000    
    2233.366974770000       1726.104082376000       867.0456092941999    
    454.2057285132000       384.2163723926000       202.3680926929000    
    72.91745846141001       3.386414661971000       7.664275279013999    
    2380.747608351000       2011.627455706000       793.0324186893999    
    2.965175330626000       2.154527022427000      -2.929698664795000    
    1.883421638917000     -0.7498310234476000       1.474621366159000    
    1.497551502072000     -0.9697304231618999       1.758815843352000    
   -4.220654416111000       5.034046080668000      -2.523760518129000    
   -2.209538823382000       2.489084424123000     -0.5271671782823000    
    3.572718856591000       217.5437061024000       1384.333116930000    
    1723.583850227000       2455.310673629000       2288.584454945000    
    1069.483176144000       616.3344275695999       487.8027879937000    
    393.2089979330000       158.2750408651000       8.642875334012999    
    16.08113006407000       17.96353063724000       2350.630564732000    
    2166.260785728000       874.6392451158999       29.19632137101000    
  -0.4304296415993000       1.806456645107000      -2.201354039963000    
    4.023047060003000      -3.558543987924000       3.610151670622000    
    3.253480882694000      -4.200176577597000       5.145001648940000    
   -2.012473824136000       1.513185693285000       5.338794170380000    
  -0.5309756426451000      -6.062344154313000       27.43984249134000    
    1755.152252045000       1449.428362738000       858.8297931579000    
    1059.343333694000       1009.504528610000       654.3880975805999    
    440.4185624243000       393.3986915671000       313.3617292089000    
    47.16610744078000       53.45081396889000       40.02147235755000    
    14.90430376691000       2280.434264291000       2192.509559185000    
    1096.587515503000       35.63881262422000       2.128491453084000    
   -2.254034692052000       1.004061391641000     -0.5568167399843000    
  -0.9475877616532000      -5.769644921435000      0.3176612954586000    
   0.3992121714867000      -4.532658988661000      0.7847443057336000    
   -4.148208515815000       3.377054247617000       2.101252969017000    
   -6.132767626446000       318.2686687325000       667.4475529602000    
    22.21698370707000       120.4585495127000       334.0020702463000    
    424.9123645838000       404.8796426412000       273.7604647952000    
    172.1232222949000       185.6932574143000       140.3370295105000    
    109.3204219211000       137.6891207648000       1.801222229892000    
    2182.919872271000       1942.743347666000       1247.267575449000    
    24.51258939005000       4.681714705480000      -1.436491137471000    
   0.5070856092263000      -1.483835756272000     -4.3322771038027001E-02
    4.351196427586000      -3.226055469639000       1.324039065136000    
    6.430712280659000       1.887858355091000     -6.6269044105402991E-02
   -7.074096125597000       1.882223636730000       12.45512434202000    
    741.9156864920000       96.41047706697000       4.524280319939000    
    48.27895141739999       186.9053256462000       274.5407119820000    
    397.7857856616000       266.1912167027000       19.41764154036000    
    179.7514542681000       150.1584284359000       271.5288315257000    
    436.4157571631000      -10.42577475973000       2081.282741744000    
    1355.917424981000       927.9474464973000      -7.103920768705000    
   -1.457589843190000      0.1970687128741000     -0.9349614586849000    
   -2.671048278442000       4.270318201554000      -1.752753641963000    
    8.919101250450000     -0.6724014270475001      -9.973288210719000    
   -4.240117469624000       11.79356079429000      -1.709107566331000    
   -10.80857872778000       228.8893003924000       334.8741610792000    
   -2.241213296872000      0.2879127731995000       79.80459607233000    
    429.8835137717000       266.4644512011000       299.5734806044000    
    134.0550843997000       1.859490538186000       96.16297978457000    
    225.0382230443000       597.5279771789000       854.9750563427000    
   -13.24009490672000       2001.115381162000       719.5485141301000    
    493.5340757360000       20.61121272829000     -0.4357169009558000    
    4.941052083137000      -8.064503884347999       2.619145919442000    
   0.9151319065536000      -4.448083652473000      -19.32106811545000    
  -0.4296552937389000       13.76490666411000       266.2413137650000    
    1675.069088101000       1233.051129122000       568.0363415278000    
    198.9360659398000       2.143395059163000       45.30834644142000    
    4.981182685711000       6.485892898285000       274.4120865265000    
    398.4285542144000       317.3457320894000       103.3875548055000    
    54.18657808681000       53.32038636532000       289.6344232116000    
    487.1097681996000       1063.341193585000      -7.698368864042000    
    1961.686431711000       360.2967392197000       641.2038879965000    
    97.32344370630000       9.011576874726000      -10.24408295821000    
    181.8555612128000       918.2762153434001       618.5301087190001    
    617.0848693609000       581.2716547010000       126.0043369182000    
    164.4436039289000       3235.856131708000       613.1487135369000    
    145.9402580014000       1294.360184297000       1142.331406674000    
    30.79696078776000       169.1260537894000       2.480266596526000    
   -1.291367335007000       3.703804889026000       333.7302021618000    
    457.9201665664000       496.3858457977000       310.1761479865000    
    137.1811963658000       455.6046627002000       156.7497081757000    
    939.1618447986000      -1.993273053086000       1969.739762385000    
    248.9816908304000       834.5561758594999       990.4162056407000    
    112.7884886192000      -2.537136713563000       148.2722712933000    
    325.0090477374000       712.9915908792000       1000.958028548000    
    2056.845640090000       3602.099692419000       3820.576892353000    
    1565.833533905000       174.7867534489000       49.44275248206000    
    533.2083699084000       458.5407526571000     -0.5441846270519000    
    34.43708469964000     -0.1157709828146000      0.9586339706256000    
   -1.211858393495000       37.74274294910000       359.0699623444000    
    638.0514496139999       208.4680651108000       442.0858938600000    
    320.0268382311000       387.7013483106000       725.3126280355000    
   -2.304164756402000       2018.834644550000       265.3086907106000    
    315.8830096728000       681.7041744465999       253.3559575483000    
   4.3740180220296000E-02   6.007935478085000      -3.900396410410000    
    6.503321488423000       161.2440440333000       216.0645180949000    
    301.0872960548000       750.1960482795999       359.5057102498000    
    203.7538227867000       50.69036604458000       763.9260173352000    
    296.9495180050000       13.36815293602000       1.513333911704000    
    2.820689617199000      -2.406841326857000     -0.8455470601291000    
    9.176204098321000       65.52131856932999       455.5711026423000    
    168.6502085465000       157.2096325542000       29.79182162790000    
    798.2103631387999       674.5050822507000      -6.467162567733000    
    2093.816060481000       428.9236590017000      -23.16519853173000    
   -31.92796283792000       41.82429071301000       1.815512956850000    
    2.689309614274000      -1.217920606772000      -3.308024267515000    
    26.65781203517000       160.3993601523000       267.0317093094000    
    304.9907738877000       446.1382313393000       357.8860354622000    
    108.3924931264000       306.8364624083000       16.01367149162000    
   -2.534891420641000      -2.351339584200000       1.169069768158000    
  -7.8675798095950003E-02 -3.7326595585654002E-02   2.298701307496000    
    115.6435597322000       120.3518491150000       3.091958004276000    
    28.47880849330000       198.2627610911000       1446.040892167000    
    848.8713072449000      -6.762412547638000       2178.342261757000    
    636.0950220953000       92.86061745031000       21.09988490777000    
   -5.486310367301000       2.967568083016000     -0.4273290866299000    
   -1.282049431117000       5.636258711632000       3.242565907172000    
    223.1441867736000       748.2216729852000       591.2017968022000    
    569.2415653889000       345.4817359366000       156.4941560594000    
    71.96836143346999      0.1568391621185000       3.598245174568000    
  -0.2886307329259000       1.282423115028000     -0.3222793393083000    
   -1.672196817501000       1.228357732146000       2.309521367486000    
   0.9122587905329000       24.52395714319000       875.2854008780999    
    1272.333481742000       2338.776157541000       1160.948979621000    
    1.608731657691000       2262.026237841000       694.0203962467999    
    18.10127183741000      -1.135795747049000      0.8560602388592999    
    2.681567260374000     -0.2848119247744000      0.6550611814731000    
   0.9246260183517000      -2.069106631045000      -10.43727876916000    
    190.2183464682000       955.3954699723000       766.4321847653000    
    473.1578686093000       140.8512992236000      -4.680908011551000    
  -0.6509804506389000      -3.687782615178000      0.5287251229105000    
  -0.8843750474204000     -0.4680206870540000       1.645611261882000    
   -1.489072594978000      5.9319634294775998E-02 -0.8882427374002000    
    285.3964733970000       2332.394765366000       2479.445591248000    
    2685.365515218000       1415.989628827000       14.83369708756000    
    2343.041211362000       683.4926640778000       19.16977518977000    
   -9.531859462443000       2.651506544763000      -2.022584060542000    
    9.191327474917999       1.152921331702000      -1.315563838705000    
   -4.239922112042000       6.829016935293000       1.947604071533000    
    194.0980729123000       392.4084625604000       518.6909335633000    
    185.6030027903000       4.699769831122000      0.3295637734741000    
    1.573624915395000      0.2273839805912000     -0.1950513427533000    
   0.9873238564725000      0.9624719011710000      -1.697044495934000    
  -0.4707738028049000       1.080977228831000       7.986320478675000    
    885.4143322660000       3032.685590173000       2776.588322350000    
    1450.975130592000       23.15008857217000       2425.043667537000    
    879.4935422210000       118.3563186635000       2.450658533615000    
  -0.8672076313076000      -1.148435859730000       8.038374866803000    
    1.637298496861000      -1.004982733372000       2.723847789472000    
   -1.432433339876000      -4.491848188862000       3.813949460719000    
   -1.275392417835000       81.78190645264000       6.375092178191000    
   -2.248115286880000      0.3356721825002000     -7.2600928423963998E-02
   0.8525983107493000      0.3670725358657000      -1.487811918659000    
   -1.096129045860000     -5.7874998209407003E-02  -1.626679530517000    
    1.634655455509000      -3.096321452054000       186.5308012071000    
    2634.757083856000       2596.635792040000       1266.555582763000    
    19.40520306716000       2510.802938850000       1366.459462887000    
    359.7187044589000      0.8217239634371000      0.7874338391248999    
    3.933285479516000       1.123227109577000      0.9005535389112000    
   4.4900705797174000E-02   1.234554876736000      -1.458417004051000    
    5.189550244465000      -2.875326903419000       1.015201971507000    
  -0.7680463453277999      0.9454470389384000     -7.5535159820432990E-02
  -0.6282251537832000     -0.8035425815518000      0.3782281437932000    
  -0.8676259055984000      0.5421195168641000       1.540370846831000    
    1.627431177509000      -1.344398739840000       1.894789405255000    
    7.646935372084000      -28.67938572447000       1538.203321540000    
    2051.807416579000       936.6656853422000       5.347355784445000    
    2597.080531739000       1967.528153375000       981.8671116516000    
   -9.213865752068999       3.692517670601000     -0.6350337760278000    
   0.1258926121328000     -0.6626622633414000       2.235673129138000    
   -4.035324507524000       3.410991578016000      -5.012692973099000    
    1.749961986767000     -0.4810983837588000       1.095937067011000    
   -1.448341322706000      0.5039370870031000       2.490163325297000    
    12.46649907488000       3.633770707633000       1.460429080551000    
   -1.635170954376000      0.5817110643432000      0.5874673382849001    
   0.4587284076873000      -1.057903682355000       2.689484734198000    
    126.3399420884000       324.9960191911000       960.0134794590999    
    529.7364730546000      -9.172708299256000       2675.030346300000    
    2457.208851240000       1796.309074192000       14.58055768654000    
   -1.392466802072000       2.778819335159000      -2.607937554258000    
    1.581748917832000      -1.521354157544000       1.484060423867000    
   -2.130125686647000       4.637119287888000      -1.368258434133000    
   0.3806443903613000      -1.323711231834000     -0.2464164506298000    
  -0.3919836523582000       6.882649917266000       24.15967455568000    
    48.79324350186999       38.47759278572000       16.45685252528000    
   -1.830678729266000     -0.7173268375257000     -0.7620990125511999    
  -0.8342687254197000       2.164081091048000       339.8246638672000    
   -16.91436854661000       46.17067494033000       186.2458497273000    
   -13.55380555817000       2735.088758463000       2716.363416158000    
    2427.389115811000       153.1158223264000     -0.1312901841113000    
   -1.413468453680000       1.421042840326000     -0.6923298825762000    
   2.0197510952618000E-02   2.443312558374000      0.1015932948184000    
   -3.748252659943000      0.8577730694647000     -2.0878637601962000E-02
    1.552950722195000      0.2996943522703000       5.079739199086999    
    399.3888427751000       300.6882010264000       335.8852576449000    
    350.8225981788000       192.3576710279000       16.66992600170000    
    36.00833534672000       2.429370551761000       26.82229131709000    
   0.9290922274311000       5.893981277891000       2.128257891095000    
   -8.272015929007001       31.21382211590000      -4.564372764724000    
    2772.988078086000       2785.933311887000       2734.350853153000    
    379.9278272451000      0.6060458557179000      0.6321879336675000    
  -0.1046039252460000      -1.346562059482000       1.382135199817000    
   -1.985122054625000      0.6934274852908999       3.932171391265000    
   -1.766874563118000      0.5881714507449000      0.3728304502884000    
   -1.157225781727000       46.76235623222000       383.8615282072000    
    349.5261961987000       385.7491688568000       395.2193440637000    
    1211.783972256000       475.0025734527000       792.4729964337000    
   -2.393008668920000       125.7965400541000       97.11950796703999    
    14.22615362763000       4.846778377388000       15.97891405413000    
    4.373300620038000       11.04961724227000    
   0.9999999999999000       1.000000000000000      0.9999999999999000    
   0.3235999034482000      0.0000000000000000E+00  0.0000000000000000E+00
   0.0000000000000000E+00  0.0000000000000000E+00  0.0000000000000000E+00
   0.0000000000000000E+00  0.0000000000000000E+00  0.0000000000000000E+00
   0.0000000000000000E+00  0.0000000000000000E+00  0.0000000000000000E+00
   0.0000000000000000E+00  7.1962978754586002E-02  0.9706062347434000    
    1.000000000000000      0.9999999999999000       1.000000000000000    
   0.9999999999999000      0.5504287182288000      0.7652465978752000    
   0.7186378304895999      0.5553546734986000      0.0000000000000000E+00
   0.0000000000000000E+00  0.0000000000000000E+00  0.0000000000000000E+00
   0.0000000000000000E+00  0.0000000000000000E+00  0.9999999999999000    
    1.000000000000000      0.9999999999999000      0.4041775483069000    
   0.0000000000000000E+00  0.0000000000000000E+00  0.0000000000000000E+00
   0.0000000000000000E+00  0.0000000000000000E+00  0.0000000000000000E+00
   0.0000000000000000E+00  0.0000000000000000E+00  0.0000000000000000E+00
   0.0000000000000000E+00  0.0000000000000000E+00  0.0000000000000000E+00
   0.2158889362637000      0.9412124694869000       1.000000000000000    
   0.9999999999999000       1.000000000000000      0.9999999999999000    
   0.5841506985244000      0.2085895225932000       1.000000000000000    
   0.4318282039229000      0.3242452755390000      7.8483096497079990E-02
   0.0000000000000000E+00  0.0000000000000000E+00  0.0000000000000000E+00
   0.0000000000000000E+00  0.9999999999999000       1.000000000000000    
   0.9999999999999000      0.4041775483069000      0.0000000000000000E+00
   0.0000000000000000E+00  0.0000000000000000E+00  0.0000000000000000E+00
   0.0000000000000000E+00  0.0000000000000000E+00  0.0000000000000000E+00
   0.0000000000000000E+00  0.2290306740931000      0.2556877580325000    
   0.1494246151046000      0.5600586203029000      0.8719629787545000    
   0.9999999999999000      0.9599845744811000      0.9999999999999000    
    1.000000000000000      0.9147887454390000      0.2747273187228000    
   0.4452157480271000      0.9614392947254000      0.7959294154609000    
   0.7232728049921000      0.5951932478310999      0.0000000000000000E+00
   0.0000000000000000E+00  7.9503079003099997E-02  0.0000000000000000E+00
   0.9999999999999000       1.000000000000000      0.9999999999999000    
   0.4041775483069000      0.0000000000000000E+00  0.0000000000000000E+00
   0.0000000000000000E+00  0.0000000000000000E+00  0.0000000000000000E+00
   3.7866329169832000E-02  0.3534394046588000      0.8750095720113999    
   0.9999999999999000       1.000000000000000      0.9999999999999000    
    1.000000000000000      0.9759845723397000      0.9999999999999000    
   0.9631287806799000      0.9999999999999000       1.000000000000000    
   0.5416670488317999      4.1067039313109996E-02  0.4443100182385000    
    1.000000000000000      0.6724802951391000      0.5618988466732000    
   0.8818807763784000      0.2371430554792000      0.2017168659762000    
   0.1987576975077000      0.0000000000000000E+00  0.9999999999999000    
    1.000000000000000      0.9999999999999000      0.4041775483069000    
   0.0000000000000000E+00  0.0000000000000000E+00  0.0000000000000000E+00
   0.0000000000000000E+00  0.0000000000000000E+00  7.5732658339664000E-02
   0.9999999999999000       1.000000000000000      0.9999999999999000    
    1.000000000000000      0.9999999999999000       1.000000000000000    
    1.000000000000000      0.9999999999999000       1.000000000000000    
   0.9999999999999000       1.000000000000000      0.7456533726655000    
   0.1673755022591000      0.9234975087335000       1.000000000000000    
   0.9588502932261000      0.3985180678072000      0.6403020293314000    
   0.5558070261742000      8.0756179295737002E-02  0.1595646876529000    
   0.0000000000000000E+00  0.9999999999999000       1.000000000000000    
   0.9999999999999000      0.5242238248634000      0.0000000000000000E+00
   0.0000000000000000E+00  0.0000000000000000E+00  0.0000000000000000E+00
   0.0000000000000000E+00  0.0000000000000000E+00  0.7895461362944000    
    1.000000000000000      0.9999999999999000       1.000000000000000    
   0.9999999999999000       1.000000000000000       1.000000000000000    
   0.9999999999999000       1.000000000000000      0.9999999999999000    
    1.000000000000000      0.5803794089373999      0.3316278273861000    
   0.5965021564915000      0.9614392947254000       1.000000000000000    
   0.8376379658583000       1.000000000000000      0.5958224516930000    
   0.0000000000000000E+00  0.0000000000000000E+00  0.0000000000000000E+00
   0.9999999999999000       1.000000000000000      0.9999999999999000    
   0.6837078797009000      0.0000000000000000E+00  0.0000000000000000E+00
   0.0000000000000000E+00  0.0000000000000000E+00  0.0000000000000000E+00
   0.0000000000000000E+00  3.7363522871362000E-02  0.5500191440227999    
   0.8312024367174000       1.000000000000000      0.9999999999999000    
   0.9599722295451000       1.000000000000000      0.9999999999999000    
    1.000000000000000      0.9999999999999000      0.7183157437758000    
   0.7056220180818999      0.6127102922180000      0.3869606299321000    
   0.8057266041657000       1.000000000000000      0.9590738048201000    
   0.8399844318228000      0.3957453240989000      0.0000000000000000E+00
   0.0000000000000000E+00  0.0000000000000000E+00  0.9999999999999000    
    1.000000000000000      0.9999999999999000      0.6837078797009000    
   0.0000000000000000E+00  0.0000000000000000E+00  0.0000000000000000E+00
   0.0000000000000000E+00  0.0000000000000000E+00  0.0000000000000000E+00
   0.0000000000000000E+00  0.0000000000000000E+00  3.5593929147684999E-02
   0.7200308498481000      0.4958795229061000      0.5680647917002000    
    1.000000000000000      0.9999999999999000      0.7749425352188000    
   0.4865786793839000      0.8883274496012000      0.9999999999999000    
   0.9999999999999000      0.5938634314403000      0.8828480147148000    
    1.000000000000000      0.9999999999999000      0.7981190809631000    
   0.1182673887595000      0.0000000000000000E+00  0.0000000000000000E+00
   0.0000000000000000E+00  0.9999999999999000       1.000000000000000    
   0.9999999999999000      0.9211550741603000      0.0000000000000000E+00
   0.0000000000000000E+00  0.0000000000000000E+00  0.0000000000000000E+00
   0.0000000000000000E+00  0.0000000000000000E+00  0.0000000000000000E+00
   0.3800691390832000      0.6443752210041001      0.1819132597718000    
   0.0000000000000000E+00  0.0000000000000000E+00  0.8799290335715000    
   0.9494246151046000      0.6713755172544000      0.9999999999999000    
    1.000000000000000      0.9999999999999000      0.9999999999999000    
   0.9582820954812999       1.000000000000000       1.000000000000000    
   0.9999999999999000      0.9185447961933000      3.9422462919839002E-02
   0.0000000000000000E+00  0.0000000000000000E+00  0.0000000000000000E+00
   0.9999999999999000       1.000000000000000      0.9999999999999000    
    1.000000000000000      0.1221828057099000      0.0000000000000000E+00
   0.0000000000000000E+00  0.0000000000000000E+00  0.0000000000000000E+00
   0.0000000000000000E+00  0.0000000000000000E+00  0.0000000000000000E+00
   0.1556247789958000      0.2957031835513000      0.0000000000000000E+00
   0.0000000000000000E+00  0.0000000000000000E+00  0.4664857576496000    
   0.3144580213780000      0.9999999999999000      0.6650441415530000    
   0.8478790874626000      0.6673205588194999      0.2825924484947000    
   0.7671658988911000       1.000000000000000      0.9999999999999000    
    1.000000000000000      0.1982365389113000      0.0000000000000000E+00
   0.0000000000000000E+00  0.0000000000000000E+00  0.9999999999999000    
    1.000000000000000      0.9999999999999000       1.000000000000000    
   0.1221828057099000      0.0000000000000000E+00  0.0000000000000000E+00
   0.0000000000000000E+00  0.0000000000000000E+00  0.0000000000000000E+00
   0.0000000000000000E+00  0.0000000000000000E+00  0.0000000000000000E+00
   0.0000000000000000E+00  0.0000000000000000E+00  0.0000000000000000E+00
   0.0000000000000000E+00  0.0000000000000000E+00  0.0000000000000000E+00
   0.7397668891894000      0.6382386185607000      0.9999999999999000    
   0.9999999999999000      0.9582820954812999       1.000000000000000    
    1.000000000000000      0.9999999999999000       1.000000000000000    
   0.3587833339219000      0.2782213578643000      0.0000000000000000E+00
   0.0000000000000000E+00  0.9999999999999000       1.000000000000000    
   0.9999999999999000       1.000000000000000      0.0000000000000000E+00
   0.0000000000000000E+00  0.0000000000000000E+00  0.0000000000000000E+00
   0.0000000000000000E+00  0.0000000000000000E+00  0.0000000000000000E+00
   0.0000000000000000E+00  0.0000000000000000E+00  0.0000000000000000E+00
   0.0000000000000000E+00  0.0000000000000000E+00  0.0000000000000000E+00
   0.0000000000000000E+00  0.0000000000000000E+00  0.0000000000000000E+00
   0.4648904378677000      0.9999999999999000      0.9999999999999000    
   0.9165641909627000      0.8835829494455000       1.000000000000000    
   0.9999999999999000       1.000000000000000      0.3560187221990000    
   0.1600617020752000      0.0000000000000000E+00  0.0000000000000000E+00
   0.9999999999999000       1.000000000000000      0.9999999999999000    
   0.8013976212227000      0.0000000000000000E+00  0.0000000000000000E+00
   0.0000000000000000E+00  0.0000000000000000E+00  0.0000000000000000E+00
   0.0000000000000000E+00  0.0000000000000000E+00  0.0000000000000000E+00
   0.0000000000000000E+00  0.0000000000000000E+00  0.0000000000000000E+00
   0.0000000000000000E+00  0.0000000000000000E+00  0.0000000000000000E+00
   0.0000000000000000E+00  4.4375221004157001E-02  0.6582774545407000    
   0.9999999999999000      0.9999999999999000      0.9999999999999000    
    1.000000000000000       1.000000000000000      0.9999999999999000    
    1.000000000000000      0.6374781532756000      4.0204507384800997E-02
   0.0000000000000000E+00  0.0000000000000000E+00  0.9999999999999000    
    1.000000000000000      0.9999999999999000      0.4839350024340000    
   0.0000000000000000E+00  0.0000000000000000E+00  0.0000000000000000E+00
   0.0000000000000000E+00  0.0000000000000000E+00  0.0000000000000000E+00
   0.0000000000000000E+00  0.0000000000000000E+00  0.0000000000000000E+00
   0.0000000000000000E+00  0.0000000000000000E+00  0.0000000000000000E+00
   0.0000000000000000E+00  0.0000000000000000E+00  0.2556877580325000    
   0.6531565128605999       1.000000000000000      0.9999999999999000    
   0.9999999999999000      0.9999999999999000       1.000000000000000    
    1.000000000000000      0.9999999999999000      0.9592723980967000    
   0.6397575607162000      0.0000000000000000E+00  0.0000000000000000E+00
   0.0000000000000000E+00  0.9999999999999000       1.000000000000000    
   0.9999999999999000      0.7628569445207000      0.0000000000000000E+00
   0.0000000000000000E+00  0.0000000000000000E+00  0.0000000000000000E+00
   0.0000000000000000E+00  0.0000000000000000E+00  0.0000000000000000E+00
   0.0000000000000000E+00  0.0000000000000000E+00  0.0000000000000000E+00
   0.0000000000000000E+00  0.0000000000000000E+00  0.0000000000000000E+00
   0.4664857576496000      0.8125435530231000      0.9999999999999000    
    1.000000000000000      0.9999999999999000      0.9999999999999000    
   0.9999999999999000       1.000000000000000       1.000000000000000    
   0.9999999999999000       1.000000000000000      0.8378132510719000    
   3.9591060503973999E-02  0.0000000000000000E+00  0.0000000000000000E+00
   0.9999999999999000       1.000000000000000      0.9999999999999000    
    1.000000000000000      0.0000000000000000E+00  0.0000000000000000E+00
   0.0000000000000000E+00  0.0000000000000000E+00  0.0000000000000000E+00
   0.0000000000000000E+00  0.0000000000000000E+00  0.0000000000000000E+00
   0.0000000000000000E+00  0.0000000000000000E+00  0.0000000000000000E+00
   0.0000000000000000E+00  0.0000000000000000E+00  0.0000000000000000E+00
   0.0000000000000000E+00  0.6641575345229001       1.000000000000000    
   0.9999999999999000      0.9999999999999000      0.9999999999999000    
    1.000000000000000       1.000000000000000      0.9999999999999000    
    1.000000000000000       1.000000000000000      0.2377662194644000    
   0.0000000000000000E+00  0.0000000000000000E+00  0.9999999999999000    
    1.000000000000000      0.9999999999999000       1.000000000000000    
   8.1455203806602997E-02  0.0000000000000000E+00  0.0000000000000000E+00
   0.0000000000000000E+00  0.0000000000000000E+00  0.0000000000000000E+00
   0.0000000000000000E+00  0.0000000000000000E+00  0.0000000000000000E+00
   0.0000000000000000E+00  0.0000000000000000E+00  0.0000000000000000E+00
   0.0000000000000000E+00  0.0000000000000000E+00  0.0000000000000000E+00
   0.1331256630124000       1.000000000000000      0.9999999999999000    
   0.9999999999999000      0.9999999999999000       1.000000000000000    
    1.000000000000000      0.9999999999999000       1.000000000000000    
    1.000000000000000      0.4370253127614000      0.0000000000000000E+00
   0.0000000000000000E+00  0.9999999999999000       1.000000000000000    
