   0.7093022      0.7112486      0.7257208      0.7338709      0.7366416    
   0.7368698      0.7359983      0.7291142      0.7124636      0.7090390    
   0.7061405      0.7001545      0.7015567      0.7029532      0.6938400    
   0.6901003      0.6761281      0.6758416      0.6755456      0.6612724    
   0.6578780      0.6544672      0.6401543      0.6323627      0.6310685    
   0.6254460      0.6262689      0.6325994      0.6430869      0.6455885    
   0.6477268      0.6580070      0.6580694      0.6581082      0.6651202    
   0.6612566      0.6612428      0.6622667      0.6592232      0.6651531    
   0.6802477      0.6874852      0.6937993      0.7144221      0.7129745    
   0.7115444      0.6593646      0.6487535      0.5870249      0.5827324    
   0.5775782      0.5980532      0.6070770      0.6161258      0.6409960    
   0.6329619      0.6274875      0.6165345      0.6184487      0.6241624    
   0.6614750      0.6673101      0.6725291      0.7073625      0.7090842    
   0.7092073      0.7093305      0.7094551      0.7062532      0.7060673    
   0.7058825      0.7056980      0.7055135      0.7053293      0.7051463    
   0.7030833      0.7029542      0.7028058      0.7026548      0.7025031    
   0.7023510      0.7021976      0.7056500      0.7051426      0.7046308    
   0.7041187      0.7036065      0.7030944      0.7025831      0.6959995    
   0.6953878      0.6947789      0.6941704      0.6935626      0.6929564    
   0.6923563      0.6854818      0.6853215      0.6855817      0.6858463    
   0.6861121      0.6863787      0.6866467      0.6869370      0.6997441    
   0.7007798      0.7018180      0.7028567      0.7038950      0.7049321    
   0.7059507      0.7184781      0.7187561      0.7190318      0.7193067    
   0.7195807      0.7198519      0.7201013      0.7147295      0.7144853    
   0.7142400      0.7139943      0.7137488      0.7135038      0.7132634    
   0.7087195      0.7088392      0.7089615    
   0.5813669      0.5833068      0.5852463      0.5871809      0.6206234    
   0.6207387      0.6208510      0.6209602      0.6210665      0.6211698    
   0.6212697      0.5476359      0.5424402      0.5370934      0.5317299    
   0.5263630      0.5209994      0.5156622      0.3674005      0.3641693    
   0.3610246      0.3578876      0.3547553      0.3516303      0.3485352    
   0.3475385      0.3485409      0.3499138      0.3513066      0.3527049    
   0.3541061      0.3555112      0.3515686      0.4108230      0.4114142    
   0.4120107      0.4126093      0.4132106      0.4138200      0.4145793    
   0.4394895      0.4403083      0.4411409      0.4419771      0.4428158    
   0.4436597      0.4445627      0.4650055      0.4653866      0.4657798    
   0.4661755      0.4665717      0.4669670      0.4673551      0.5082420    
   0.5102425      0.5122739      0.5143113      0.5163513      0.5183938    
   0.5204475      0.5755690      0.5774906      0.5794275      0.3905134    
   0.3907532      0.3688486      0.3646733      0.3564975      0.3728594    
   0.3465444      0.3555565      0.3429171      0.3486201      0.3892740    
   0.3901900      0.3953335      0.4002991      0.3176378      0.2957590    
   0.2696106      0.1835763      8.3335221E-02  5.7085853E-02  5.3187784E-02
   4.9282998E-02  6.7416549E-02  7.5228862E-02  8.4869951E-02  0.1607962    
   0.2376159      0.2585195      0.3722737      0.3880531      0.4787541    
   0.5258604      0.5409236      0.5559883      0.6314204      0.6337416    
   0.6347452      0.6211240      0.5634719      0.5489091      0.4725305    
   0.4599289      0.4057719      0.3941286      0.3915001      0.3888745    
   0.3620697      0.3591424      0.3577799      0.3441687      0.3703997    
   0.4285211      0.4402035      0.4520614      0.4633545      0.4517412    
   0.4395326      0.3524870      0.3378503      0.3310546      0.3179413    
   0.3304158      0.3878771      0.3900948      0.3850047      0.2511021    
   0.2339640      0.2002138      0.2082722      0.2990395      0.3146667    
   0.3127120      0.2406840      0.1519751      0.1434330      0.2031298    
   0.2255613      0.2822456      0.2544706      0.3025167      0.2435624    
   0.1766456      9.7183399E-02  0.1354295      0.1624435      0.1944350    
   0.1710002      0.1609508      0.1219601      0.1085578      0.1444399    
   0.1998107      0.3324622      0.4986362      0.7289671      0.7534621    
   0.7597252      0.7245392      0.7321724      0.7200431      0.7045554    
   0.6481903      0.6172509      0.5613327      0.5328813      0.4928106    
   0.4911251      0.5584621      0.5822748      0.6644202      0.6861638    
   0.6843916      0.6522979      0.6263038      0.6402324      0.6218425    
   0.6254578      0.6424500      0.7123495      0.7256142      0.6714412    
   0.6385621      0.5813348      0.6038038      0.5759810      0.5635206    
   0.5207580      0.5098909      0.6116023      0.5641223      0.5980418    
   0.5870103      0.5688204      0.5737951      0.5613751      0.4600217    
   0.3694364      0.2768916      0.2185059      0.2967629      0.4735214    
   0.5502935      0.5293059      0.4494455      0.3451583      0.2613553    
   0.2297512      0.2747846      0.3061901      0.3064651      0.2790805    
   0.2558981      0.2475620      0.2442396      0.3237091      0.4322321    
   0.5951594      0.6702101      0.7280180      0.7666699      0.8097191    
   0.7945349      0.7838874      0.7907173      0.7762546      0.7278690    
   0.7207136      0.7133933      0.7085368      0.7144674      0.7617819    
   0.7909381      0.7834367      0.7770326      0.7435989      0.7123326    
   0.6929556      0.6928922      0.7477676      0.7313432      0.7060732    
   0.7009219      0.7132812      0.6966164      0.6941530      0.6978926    
   0.7287318      0.7605338      0.8049550      0.7750945      0.7254550    
   0.7013174      0.7812776      0.7839059      0.7898949      0.7958384    
   0.8008753      0.7898672      0.7766270      0.7519331      0.7438008    
   0.6928201      0.6646806      0.7289668      0.7936321      0.7928860    
   0.7501702      0.7243539      0.6982260      0.6861414      0.6728158    
   0.7143580      0.7464684      0.7217939      0.6919118      0.6397954    
   0.6053455      0.6275579      0.6799735      0.7230264      0.7865080    
   0.8160867      0.8068225      0.7902312      0.7723503      0.7720335    
   0.8135421      0.8406402      0.8400707      0.8377169      0.8419783    
   0.8197702      0.7983347      0.7978999      0.7862009      0.7684280    
   0.7902295      0.8297605      0.8311374      0.8026966      0.7789444    
   0.7847291      0.7834332      0.7878596      0.7958428      0.7733902    
   0.7556798      0.7628783      0.7551181      0.7415612      0.8020172    
   0.8452491      0.8607800      0.8631526      0.8218062      0.7859410    
   0.8202367      0.8276156      0.8215204      0.8351513      0.8223766    
   0.8022108      0.7956619      0.7456335      0.7474464      0.7499985    
   0.7793991      0.8242164      0.8315670      0.8271214      0.8191024    
   0.7957554      0.7597569      0.7739710      0.8210835      0.8362328    
   0.8314051      0.8184456      0.8042419      0.7742916      0.7748326    
   0.8077025      0.8241116      0.8409904      0.8686489      0.8733412    
   0.8310754      0.7591703      0.7649137      0.7902424      0.7865955    
   0.7713571      0.7426673      0.7293486      0.7947143      0.8209373    
   0.8151369      0.8147360      0.8146484      0.8059739      0.7763255    
   0.7938226      0.7944108      0.8092079      0.7978508      0.7807523    
   0.7536690      0.7530122      0.7432525      0.7475089      0.7433993    
   0.7477638      0.8309371      0.8667063      0.8745481      0.8740358    
   0.8372545      0.8201301      0.8019235      0.8081106      0.8827387    
   0.8722371      0.8800723      0.8851869      0.8844766      0.8681666    
   0.8619928      0.8580825      0.7957009      0.7920038      0.7971841    
   0.8106917      0.8193024      0.7863176      0.7198274      0.7566835    
   0.7710227      0.8073978      0.8305727      0.8534608      0.8362237    
   0.8353015      0.8276045      0.7897366      0.7722191      0.7616202    
   0.8160290      0.8410016      0.8499053      0.8537557      0.8443857    
   0.8322489      0.7956569      0.7415783      0.7198025      0.7182963    
   0.7058858      0.7553815      0.7857971      0.8099406      0.8061458    
   0.8152767      0.8119498      0.8129492      0.8271570      0.8361043    
   0.8272011      0.8148106      0.8064586      0.8037982      0.8210741    
   0.8074617      0.7279236      0.6060287      0.6061734      0.6274109    
   0.7231099      0.7986547      0.8291558      0.8363026      0.8397774    
   0.8657511      0.8724162      0.8828101      0.8615254      0.8653450    
   0.8610260      0.8715679      0.8457491      0.8562260      0.8688437    
   0.8747931      0.8874617      0.8652830      0.8704354      0.8254536    
   0.8126009      0.7987518      0.8109936      0.7926607      0.8193486    
   0.8266840      0.8289379      0.8169115      0.8061871      0.8121886    
   0.8074875      0.7815201      0.7875741      0.8057029      0.8153820    
   0.8461639      0.8269999      0.8040077      0.7756568      0.7896888    
   0.8423796      0.7612951      0.6910467      0.6955647      0.6649218    
   0.7635745      0.7742964      0.7799529      0.8076259      0.8234615    
   0.8315306      0.8164878      0.8309783      0.8386461      0.8320764    
   0.8287314      0.7997422      0.8237684      0.8420691      0.7612114    
   0.6745309      0.6264260      0.5849446      0.6719822      0.7593846    
   0.7795328      0.8140143      0.8064041      0.8199479      0.8476344    
   0.8891536      0.8732821      0.7993413      0.8242972      0.8292923    
   0.8419225      0.8438458      0.8251826      0.8653761      0.8721725    
   0.8909101      0.8554298      0.8324454      0.7934355      0.7528821    
   0.7933428      0.7607667      0.7552549      0.8073134      0.8395516    
   0.8339684      0.8267948      0.8133408      0.8012418      0.7723087    
   0.7897284      0.8064601      0.7445719      0.6468476      0.6736426    
   0.6870322      0.7292089      0.6669266      0.5911978      0.7178769    
   0.8115842      0.8143281      0.7139336      0.7987208      0.7793605    
   0.7966947      0.8129963      0.8431897      0.8594842      0.8296942    
   0.8212413      0.8431119      0.8577992      0.8727138      0.8412063    
   0.8225049      0.8338526      0.8535377      0.7078795      0.5273071    
   0.5616027      0.6750524      0.6741518      0.6562856      0.7159389    
   0.7564636      0.7894489      0.7908843      0.8175191      0.8281748    
   0.8176259      0.7364416      0.7461808      0.7417421      0.7211770    
   0.6684751      0.7168709      0.7930335      0.8001243      0.8018200    
   0.7841591      0.6860328      0.6554430      0.6780846      0.7210059    
   0.7473550      0.8075013      0.8374777      0.8322541      0.7899074    
   0.7687606      0.7862409      0.7478936      0.7782464      0.7672562    
   0.7212695      0.6224341      0.5456724      0.5253628      0.6109770    
   0.6883986      0.6827953      0.6228170      0.6016468      0.7633749    
   0.8252289      0.8203591      0.8033952      0.7957143      0.8009035    
   0.7903150      0.7905805      0.7411854      0.7581727      0.7931269    
   0.7674596      0.7308771      0.7247805      0.7047629      0.6602408    
   0.7134795      0.7234373      0.6075804      0.4933258      0.5552660    
   0.6200078      0.6540669      0.6450994      0.6388561      0.6546818    
   0.7120116      0.7661572      0.7738898      0.7732530      0.7643873    
   0.5401826      0.5697870      0.4636175      0.3569041      0.3944773    
   0.5741893      0.5468011      0.5444784      0.5408155      0.6548117    
   0.6972846      0.6090138      0.6121933      0.5900568      0.6733549    
   0.7436913      0.7487105      0.7272684      0.7384419      0.7390799    
   0.6396409      0.4850048      0.4510028      0.3987142      0.3668508    
   0.4088008      0.5285524      0.6422397      0.6315742      0.6351181    
   0.6195989      0.5755150      0.5724890      0.6156801      0.6511394    
   0.6923161      0.6676905      0.6657666      0.6383656      0.6149219    
   0.6512810      0.6996700      0.6658943      0.5556085      0.4673614    
   0.5008088      0.4838707      0.4305262      0.4447696      0.5314622    
   0.6775593      0.7264055      0.5935638      0.6735284      0.6096443    
   0.6408142      0.6218724      0.6140839      0.6355377      0.6451108    
   0.6007504      0.5565556      0.5512317      0.5086858      0.6561095    
   0.6648922      0.5373852      0.4720163      0.5415059      0.5966210    
   0.5509220      0.3928299      0.3809178      0.5771177      0.6239043    
   0.5507125      0.6022304      0.5096610      0.5066401      0.6068075    
   0.6375775      0.7061751      0.6776549      0.6758444      0.5277213    
   0.3920574      0.2468290      0.1829139      0.2053340      0.5023757    
   0.6248230      0.6272070      0.6557336      0.6173242      0.5437733    
   0.5219259      0.5621490      0.5364346      0.6229631      0.6134477    
   0.5253164      0.5739885      0.5970933      0.5934660      0.5980237    
   0.6265596      0.5865319      0.4806719      0.4386849      0.4479318    
   0.4738008      0.4474291      0.5124559      0.7261114      0.8333552    
   0.8475391      0.4926886      0.6085607      0.5929630      0.6761627    
   0.5523548      0.4932047      0.5228556      0.5228417      0.5174598    
   0.5140158      0.5001788      0.5072722      0.6742953      0.7038638    
   0.6109241      0.6034230      0.6098905      0.5253074      0.4350045    
   0.2736289      0.3147424      0.5136588      0.5012733      0.4835239    
   0.4817954      0.5072368      0.5149031      0.6624490      0.6187260    
   0.6344710      0.6158432      0.6161293      0.5398902      0.3858409    
   0.3615496      0.3280661      0.3184336      0.5275694      0.6355895    
   0.7017838      0.5673104      0.5955788      0.6355698      0.6127123    
   0.6250880      0.6100020      0.6627605      0.6596772      0.5620440    
   0.6068144      0.6024405      0.5685717      0.5914389      0.5554947    
   0.4585632      0.4318182      0.4424605      0.4841361      0.4669063    
   0.5252684      0.7373471      0.8335549      0.8684258      0.8105459    
   0.4972809      0.5413862      0.5257919      0.5170913      0.5439194    
   0.4575428      0.4936429      0.4689322      0.4662101      0.4219214    
   0.4348148      0.5321478      0.6181657      0.7600769      0.5694526    
   0.6259466      0.5124639      0.4278145      0.4314564      0.4189448    
   0.3294792      0.4556918      0.5169181      0.4477946      0.4918265    
   0.5125799      0.6484040      0.7050413      0.6878463      0.6606575    
   0.5690448      0.5640554      0.5600904      0.5123790      0.4710382    
   0.5235686      0.5532761      0.6588454      0.6969957      0.6503602    
   0.6203183      0.6768345      0.7483282      0.7449700      0.7560097    
   0.7579014      0.7672954      0.7577517      0.6819755      0.6806750    
   0.6358588      0.5699860      0.5587736      0.4478669      0.3803446    
   0.3890314      0.3962519      0.4593222      0.5694446      0.6451882    
   0.7261951      0.7634667      0.6627399      0.6414890      0.6516517    
   0.6532536      0.6123900      0.5808720      0.5025473      0.5038556    
   0.3474366      0.3207804      0.2852415      0.2983976      0.3727464    
   0.4876008      0.4341131      0.4951950      0.6195913      0.6668929    
   0.6747731      0.6488514      0.6191583      0.5292343      0.4782209    
   0.6065824      0.5585414      0.6640844      0.5975168      0.5355573    
   0.6829306      0.7184507      0.6752658      0.6669542      0.6391304    
   0.6487859      0.6416407      0.5660649      0.5084979      0.5715875    
   0.6277722      0.6894575      0.6916349      0.6564398      0.6827936    
   0.7376527      0.7549554      0.7450692      0.7512167      0.7508437    
   0.7491436      0.7381221      0.7078062      0.6538785      0.5684223    
   0.5304947      0.4501197      0.3040964      0.2836740      0.3296391    
   0.4277353      0.5308410      0.5549973      0.6046667      0.5980445    
   0.5482060      0.5657011      0.7529919      0.7584436      0.7428183    
   0.7349081      0.7281264      0.6737012      0.6069850      0.3146821    
   0.3435968      0.3338650      0.2990475      0.3114042      0.3591408    
   0.5631432      0.5776196      0.6375372      0.6220360      0.6321564    
   0.6929238      0.6701514      0.5429034      0.4025348      0.4650713    
   0.5490095      0.5636811      0.4885500      0.5371975      0.7120134    
   0.7092968      0.7342225      0.7410170      0.6992807      0.6364838    
   0.6986392      0.6442572      0.6041002      0.5979881      0.6616073    
   0.7040472      0.6731421      0.6253253      0.6390663      0.7207532    
   0.7355688      0.7157476      0.6791169      0.6721787      0.7071414    
   0.7662391      0.7021775      0.6088393      0.5471766      0.4893779    
   0.4319396      0.4060645      0.5143654      0.4978011      0.4888632    
   0.4959539      0.4938371      0.4495342      0.5120603      0.4625006    
   0.6997979      0.7668135      0.7789590      0.7698821      0.7734056    
   0.7499756      0.7011079      0.5993533      0.5602741      0.5165849    
   0.4050380      0.3356270      0.3306482      0.4506472      0.4675803    
   0.5347955      0.6115890      0.5462233      0.5850982      0.6069905    
   0.6621169      0.6250560      0.5032272      0.3898992      0.5091690    
   0.6531804      0.4567497      0.4897014      0.6575228      0.7316458    
   0.7569669      0.7338261      0.6366450      0.5456981      0.6623783    
   0.6470013      0.6081818      0.6480715      0.6967842      0.7577518    
   0.7278439      0.6615801      0.6907272      0.7208785      0.7735548    
   0.7761976      0.7414001      0.7008891      0.7031311      0.7492007    
   0.6924271      0.6540391      0.6544003      0.5905218      0.4784130    
   0.4216338      0.3994341      0.3642625      0.4049483      0.4097249    
   0.4605829      0.5090659      0.4713467      0.4651360      0.6785859    
   0.7527455      0.7678246      0.7860867      0.7732239      0.7554983    
   0.7115459      0.6927432      0.6769997      0.6458322      0.5895629    
   0.5388355      0.5421021      0.4851218      0.4027919      0.4059877    
   0.4026489      0.4328416      0.4051238      0.4477495      0.5710968    
   0.5536499      0.5907556      0.3515325      0.3838135      0.4736127    
   0.4247367      0.3354723      0.5578287      0.6102413      0.6169407    
   0.5685677      0.4429955      0.3988907      0.4506207      0.3988809    
   0.5558299      0.5617850      0.6142528      0.6694672      0.6672186    
   0.6639020      0.7231935      0.7219243      0.7555867      0.7761812    
   0.7444472      0.7324439      0.6920667      0.7271056      0.7395871    
   0.7251264      0.7203779      0.6745790      0.6133994      0.5762698    
   0.5046004      0.4965889      0.3837619      0.3080898      0.2738287    
   0.3140050      0.3842475      0.5038179      0.5554745      0.7087677    
   0.6940243      0.7529349      0.7059793      0.6571808      0.6263856    
   0.6254190      0.5635632      0.5459425      0.5121549      0.4685753    
   0.4225179      0.4405783      0.2663563      0.3184826      0.2752183    
   0.3278496      0.3066313      0.3766813      0.3751594      0.4742590    
   0.3400443      0.2510914      0.3050101      0.2323118      0.1847233    
   0.2583291      0.4589044      0.4142987      0.3544062      0.2884478    
   0.5489412      0.5179434      0.3482878      0.2650115      0.4175132    
   0.3200581      0.4338207      0.4432980      0.4450921      0.4424180    
   0.5180751      0.5620205      0.5570270      0.4520939      0.4039001    
   0.4556449      0.5052734      0.5127380      0.5764478      0.6113347    
   0.6456549      0.6018044      0.5867442      0.6272199      0.6920424    
   0.5671202      0.4194699      0.2658619      0.1802994      0.2268477    
   0.4704499      0.4972906      0.3521521      0.4501651      0.5110558    
   0.5209391      0.5382771      0.5758063      0.5632483      0.5532211    
   0.6306040      0.6884918      0.6261952      0.4703266      0.3741818    
   0.3114821      0.3754361      0.3223198      0.3540825      0.2249536    
   0.2095799      0.2678786      0.3689407      0.4756896      0.4777391    
   0.3499666      0.2903775      0.1885945      0.1412559      0.3168100    
   0.4867125      0.4028838      0.4609076      0.4783754      0.5588434    
   0.6932430      0.6180049      0.5399840      0.4599199      0.3723650    
   0.3978575      0.3804390      0.3528884      0.3841062      0.4234511    
   0.4599643      0.5251521      0.4852487      0.4771032      0.5339727    
   0.5753622      0.6142823      0.5586203      0.5635090      0.5779264    
   0.6637237      0.6621076      0.6635712      0.7503296      0.6832947    
   0.4391705      0.3356885      0.4229402      0.5774113      0.5325608    
   0.4605203      0.4146563      0.4269735      0.4354387      0.4556065    
   0.5326903      0.5753534      0.5301610      0.5255747      0.5362715    
   0.5454589      0.6219314      0.5726230      0.5078918      0.5076448    
   0.4507117      0.3433706      0.3641184      0.4224847      0.2631537    
   0.2502120      0.2838529      0.4246751      0.5327893      0.3684354    
   0.3439980      0.3407651      0.4691312      0.4532071      0.4514806    
   0.3978181      0.4971033      0.6035664      0.6353166      0.7509739    
   0.7889667      0.7066194      0.7171389      0.6344771      0.5372171    
   0.5105892      0.4859862      0.4540411      0.4991505      0.5182612    
   0.5373539      0.5251496      0.5176545      0.5843624      0.6105236    
   0.7026670      0.7193226      0.6949932      0.6886199      0.6987328    
   0.7059278      0.7082290      0.7335194      0.6634527      0.4608128    
   0.3894746      0.5301450      0.6223768      0.5426483      0.5203481    
   0.5267490      0.5243285      0.5305818      0.4970282      0.5296056    
   0.5347930      0.5444986      0.5754225      0.6074636      0.5720078    
   0.5890117      0.5639368      0.5189224      0.5281358      0.4372620    
   0.4116558      0.4903998      0.5004722      0.3758310      0.4129308    
   0.4176284      0.4452516      0.4592075      0.3975230      0.3790144    
   0.4745438      0.5109521      0.4636866      0.5705132      0.6433207    
   0.7347089      0.7600284      0.7696769      0.7570298      0.7217330    
   0.6341364      0.6674559      0.7323550      0.6663927      0.6642489    
   0.6457409      0.6810755      0.6758434      0.6642257      0.6417000    
   0.6785469      0.6048222      0.6604982      0.7036165      0.7568917    
   0.7558779      0.7234758      0.7436664      0.7914807      0.7543005    
   0.7155828      0.7583494      0.6603949      0.5455938      0.5289119    
   0.6358562      0.6560389      0.5774152      0.5293171      0.6025615    
   0.6242218      0.6390234      0.6410478      0.6548630      0.6008810    
   0.6090307      0.6826994      0.6511192      0.6743201      0.6986650    
   0.6970443      0.5703858      0.5128321      0.5856317      0.6109706    
   0.5291557      0.4833185      0.3833175      0.3860957      0.4492919    
   0.4968868      0.6892905      0.7278926      0.6244214      0.5846990    
   0.6658170      0.8087274      0.6982659      0.6689012      0.7542189    
   0.8264634      0.7310254      0.5955256      0.5762740      0.5419909    
   0.5541480      0.5663251      0.6006798      0.6222521      0.7481334    
   0.8340341      0.8627250      0.8264614      0.8278424      0.7939683    
   0.7647772      0.7811951      0.7353727      0.8021872      0.8091855    
   0.8100034      0.7844646      0.7407116      0.6802118      0.6931669    
   0.6753751      0.4974386      0.6337134      0.6504297      0.6106993    
   0.6524832      0.6526532      0.6830563      0.7179319      0.7498704    
   0.8478519      0.8402230      0.8301121      0.7884750      0.7713002    
   0.7481875      0.7486545      0.7731580      0.7886333      0.7640030    
   0.6496123      0.5615549      0.5060601      0.5251192      0.5464622    
   0.5325547      0.5382125      0.5021276      0.5818938      0.6766030    
   0.6847414      0.7359469      0.6139419      0.6434041      0.6297463    
   0.6792288      0.6755391      0.6703970      0.6653197      0.6316592    
   0.6121447      0.5852262      0.6013423      0.5811650      0.5389603    
   0.5237149      0.5222089      0.5720242      0.5771447      0.7737556    
   0.8470187      0.8250629      0.8486230      0.8463366      0.7507390    
   0.7488253      0.7641895      0.7299528      0.7966792      0.8003817    
   0.8042852      0.7719313      0.7595717      0.7713331      0.6793247    
   0.5064036      0.5815852      0.6431344      0.6576125      0.6712825    
   0.6790962      0.7263343      0.7415906      0.6925082      0.8006730    
   0.8431649      0.8607578      0.8386253      0.8304767      0.8200443    
   0.7871257      0.7859600      0.8124770      0.7713778      0.5641128    
   0.5077515      0.5550123      0.5836077      0.5806566      0.6123380    
   0.6256381      0.5714840      0.5960062      0.6704561      0.7200747    
   0.7127370      0.6969844      0.6878223      0.6186887      0.6149043    
   0.6225904      0.6415651      0.6780929      0.6588672      0.6414709    
   0.6386802      0.5843997      0.5681525      0.5274372      0.5135782    
   0.4981326      0.4512781      0.5171172      0.7090852      0.8342912    
   0.8495373      0.8465903      0.8038265      0.7843382      0.7710929    
   0.7424673      0.6846585      0.7616021      0.8452101      0.8455915    
   0.8222935      0.8336139      0.8020635      0.6947364      0.5550976    
   0.6227855      0.6244020      0.6571971      0.7111524      0.7038010    
   0.6943860      0.6257247      0.7012848      0.6937481      0.6657502    
   0.6719320      0.7019756      0.8148403      0.8626387      0.8450829    
   0.8232419      0.8342388      0.8025329      0.7500981      0.6271005    
   0.6657772      0.6285689      0.6924333      0.6815386      0.6741806    
   0.6528482      0.6930059      0.7483774      0.6478932      0.6829952    
   0.7021872      0.6800934      0.6402192      0.6223050      0.6002154    
   0.5951669      0.5545303      0.5913427      0.6144708      0.5833852    
   0.5419558      0.5187683      0.4838573      0.4619986      0.5142059    
   0.4698031      0.4405366      0.6010600      0.6339354      0.7928647    
   0.8358904      0.7942924      0.8068460      0.7930009      0.7607350    
   0.7243152      0.7480752      0.8172182      0.8695225      0.8542150    
   0.8427948      0.7598209      0.6695157      0.6080543      0.6021603    
   0.6212549      0.6753112      0.7104184      0.7279615      0.7376496    
   0.7264271      0.7531563      0.7346456      0.6758596      0.6678782    
   0.7223939      0.8428878      0.8648211      0.8535745      0.8423990    
   0.8452172      0.8582208      0.8305807      0.7380153      0.7211181    
   0.6970307      0.6292715      0.5563331      0.5310279      0.5853041    
   0.6383268      0.6836042      0.6721157      0.6316804      0.5993469    
   0.6058049      0.6702105      0.7038629      0.7278003      0.7143647    
   0.7027259      0.6916625      0.6286117      0.6042773      0.6415801    
   0.6391386      0.6077332      0.5643214      0.4721166      0.4059371    
   0.4472868      0.5256436      0.5679368      0.6093470      0.6506692    
   0.7200729      0.7303483      0.6434357      0.6233388      0.6389925    
   0.6069503      0.5982373      0.6424836      0.6362408      0.6068745    
   0.5607584      0.5406729      0.6076025      0.7146435      0.7070646    
   0.7452280      0.7336463      0.6747898      0.6989185      0.7573907    
   0.7579732      0.6953475      0.7046734      0.7667131      0.7866547    
   0.6885325      0.6661406      0.7341928      0.7694519      0.7743528    
   0.7502161      0.7666445      0.7406917      0.7337124      0.7577438    
   0.7280949      0.5939838      0.5164692      0.5577788      0.6020772    
   0.6745428      0.6932430      0.6328471      0.5844792      0.6192684    
   0.6635835      0.7025578      0.7290861      0.7151965      0.6877119    
   0.6344520      0.5881451      0.5979757      0.6395215      0.6587007    
   0.6519882      0.5982575      0.5198505      0.4779388      0.4269183    
   0.4132171      0.4312271      0.4999159      0.5301946      0.5304388    
   0.5289996      0.5546314      0.6128882      0.6047668      0.5726787    
   0.5646143      0.5750912      0.5901270      0.6076959      0.6044382    
   0.6321276      0.6678663      0.6873769      0.7172161      0.7178422    
   0.6934766      0.6753890      0.6494324      0.6361031      0.6471369    
   0.6378037      0.6347256      0.6986405      0.6057276      0.4393783    
   0.5285454      0.6783342      0.7137334      0.7487317      0.7397062    
   0.7181560      0.7197956      0.7863033      0.7830081      0.7679112    
   0.7560244      0.7401972      0.7288744      0.7341430      0.7451149    
   0.7327451      0.7375183      0.7122883      0.7279167      0.7606834    
   0.7486563      0.7195703      0.6526760      0.6239269      0.5675819    
   0.5805256      0.6297063      0.6417197      0.6640604      0.6628090    
   0.6234823      0.6069840      0.5684370      0.5484594      0.5341297    
   0.5644923      0.5881903      0.5619093      0.5542690      0.5252150    
   0.4686493      0.4527503      0.4921032      0.5317222      0.5192205    
   0.5406113      0.5766057      0.6010866      0.6043597      0.6233373    
   0.6267860      0.6459268      0.6603076      0.6363629      0.5688679    
   0.5492605      0.4635655      0.4118525      0.4235483      0.4260385    
   0.5142202      0.5553604      0.4409195      0.3278528      0.2754466    
   0.3406683      0.4608267      0.6755847      0.7808174      0.7795031    
   0.7845547      0.7726779      0.7639718      0.7601612      0.7460124    
   0.7656776      0.7586071      0.7727388      0.7488405      0.6999148    
   0.6699280      0.6796765      0.7373571      0.7623618      0.7227594    
   0.6637317      0.6456917      0.5983409      0.5409724      0.5349184    
   0.5738058      0.6512874      0.6410725      0.6331007      0.6418187    
   0.6257216      0.5781578      0.5484146      0.5474305      0.5591366    
   0.5494316      0.5373066      0.5418174      0.5216905      0.4918803    
   0.4937766      0.5372649      0.5907633      0.5803139      0.5938405    
   0.5803738      0.5492082      0.4883553      0.4855669      0.5245799    
   0.5813935      0.5541453      0.4957171      0.4077092      0.3530604    
   0.3737956      0.4292738      0.4519390      0.4681934      0.4599359    
   0.3607712      0.3308422      0.2346864      0.2178189      0.2470400    
   0.3618113      0.6211156      0.6565450      0.7570531      0.7630115    
   0.6475039      0.6629020      0.7609227      0.7723449      0.7796442    
   0.7939932      0.7916505      0.7925324      0.7313879      0.7238871    
   0.7173220      0.7017099      0.7057413      0.7097645      0.7046506    
   0.6987330      0.6736872      0.6727723      0.6720099      0.6670389    
   0.6667839      0.6665758      0.5910870      0.5735220      0.5561764    
   0.4520435      0.4479085      0.4448488      0.5178996      0.5362934    
   0.5533326      0.6265190      0.6228439      0.6191878      0.6115802    
   0.6084355      0.6091686      0.6470259      0.6532049      0.6535060    
   0.6770183      0.6757478      0.6755800      0.6464100      0.6420758    
   0.6378568      0.5883274      0.5707459      0.5124944      0.5008250    
   0.4896575      0.4361663      0.4353552      0.4344196      0.4334572    
   0.4340444      0.4346507      0.4904460      0.4989228      0.5031997    
   0.5570302      0.5583022      0.5599918      0.6322246      0.6175226    
   0.6187630      0.6200029      0.6212385      0.6485354      0.6489025    
   0.6492686      0.6496342      0.6499995      0.6503636      0.6507213    
   0.6488051      0.6484221      0.6480262      0.6476289      0.6472312    
   0.6468335      0.6464365      0.6330986      0.6327109      0.6323218    
   0.6319326      0.6315436      0.6311550      0.6307685      0.6345597    
   0.6349270      0.6353229      0.6357203      0.6361180      0.6365156    
   0.6369124      0.6272917      0.6250005      0.6239600      0.6229144    
   0.6218679      0.6208217      0.6197780      0.6187894      0.6088326    
   0.6092139      0.6095990      0.6099849      0.6103712      0.6107579    
   0.6111479      0.6181058      0.6178612      0.6176179      0.6173749    
   0.6171324      0.6168910      0.6166600      0.6031902      0.6028762    
   0.6025629      0.6022502      0.6019380      0.6016278      0.6013320    
   0.6138184      0.6150445      0.6162826    
   0.4956602      0.4971029      0.4985461      0.4999903      0.5357590    
   0.5358627      0.5359637      0.5360616      0.5361569      0.5362493    
   0.5363369      0.5413080      0.5407831      0.5402393      0.5396934    
   0.5391470      0.5386011      0.5380584      0.5140502      0.5130960    
   0.5121496      0.5112042      0.5102594      0.5093163      0.5083799    
   0.4619021      0.4602687      0.4586811      0.4570963      0.4555132    
   0.4539326      0.4523614      0.4474040      0.4333129      0.4337292    
   0.4341459      0.4345630      0.4349812      0.4354035      0.4359013    
   0.4569126      0.4568762      0.4568474      0.4568206      0.4567953    
   0.4567737      0.4567932      0.4700396      0.4700778      0.4701246    
   0.4701734      0.4702233      0.4702750      0.4703417      0.4740675    
   0.4743021      0.4745480      0.4747963      0.4750462      0.4752992    
   0.4755726      0.4913571      0.4927793      0.4942184      0.4635451    
   0.4652908      0.4512576      0.4463067      0.4399925      0.4394253    
   0.4319650      0.4370139      0.4737329      0.4843754      0.5100629    
   0.5323247      0.5318795      0.5314905      0.5091451      0.5044066    
   0.4997485      0.4773009      0.4636600      0.4339260      0.4267677    
   0.4195495      0.3667632      0.3624729      0.3572981      0.3561946    
   0.3558799      0.3609163      0.4167801      0.4288487      0.4733360    
   0.5254415      0.5335038      0.5416594      0.5891459      0.5919369    
   0.5954670      0.5976870      0.5873176      0.5812119      0.5619293    
   0.5547721      0.5100574      0.4381342      0.4196493      0.4013306    
   0.3391287      0.3426745      0.3466933      0.3848516      0.4331318    
   0.5142908      0.5336342      0.5531479      0.6040654      0.5950174    
   0.5849295      0.5302907      0.4966568      0.4889791      0.4589146    
   0.4580259      0.4615977      0.4617769      0.4511254      0.4138619    
   0.4188462      0.4505033      0.4620938      0.4910944      0.5015243    
   0.4856935      0.4919105      0.4510645      0.4392756      0.3849196    
   0.3751408      0.3088632      0.3147047      0.3744290      0.4622591    
   0.4622414      0.4519571      0.4903622      0.4902539      0.5336350    
   0.4538878      0.4224762      0.3495472      0.3674727      0.4151941    
   0.4453311      0.4862783      0.5121230      0.5734106      0.5807666    
   0.5570731      0.5639156      0.5823175      0.6559930      0.6643961    
   0.6778228      0.6744874      0.6300877      0.6009341      0.5557610    
   0.5559452      0.5912973      0.6038982      0.6216520      0.6045304    
   0.5880049      0.5609847      0.5673897      0.5875935      0.5798917    
   0.5938697      0.6061168      0.6701896      0.6766311      0.6693990    
   0.6658731      0.6511047      0.6592478      0.6062707      0.5363445    
   0.4803854      0.4881247      0.5069622      0.4297053      0.4375938    
   0.5090742      0.5812850      0.5216784      0.5057532      0.4610471    
   0.4624365      0.3760653      0.3570417      0.3574938      0.4215509    
   0.4805763      0.4322059      0.3157389      0.1659162      8.2871266E-02
   0.2072192      0.3682061      0.4881850      0.4501449      0.4086068    
   0.4293941      0.4097071      0.3453909      0.4160514      0.5122038    
   0.5835849      0.6297523      0.6507180      0.6278521      0.5790969    
   0.6077473      0.6694996      0.7097304      0.6665936      0.6351270    
   0.6606824      0.6672189      0.6600395      0.6466002      0.6568906    
   0.6607454      0.6361262      0.6337291      0.6287156      0.6478410    
   0.6361473      0.6450619      0.6686780      0.6338283      0.6152547    
   0.6416928      0.7012411      0.6659207      0.6433126      0.5401884    
   0.4994986      0.5920581      0.7260542      0.6975703      0.6251913    
   0.5722508      0.7686737      0.6687560      0.6038073      0.7011452    
   0.7920513      0.7544453      0.7267371      0.7183380      0.7256905    
   0.5487267      0.5728397      0.7778370      0.7885706      0.7128313    
   0.6509022      0.6446346      0.5974276      0.5177631      0.5059408    
   0.5971094      0.6682910      0.7479954      0.7631552      0.6831011    
   0.6214622      0.6325923      0.6367410      0.6355300      0.7046601    
   0.7737646      0.8086537      0.8043134      0.7391104      0.6710802    
   0.6925756      0.7544054      0.7745492      0.7636444      0.7426915    
   0.7210390      0.7398554      0.8179194      0.8845222      0.8898417    
   0.8831034      0.8480642      0.7930309      0.7725641      0.7857687    
   0.7748901      0.8183886      0.8670463      0.8228884      0.7549064    
   0.7906389      0.6922116      0.4946258      0.5274384      0.6873175    
   0.7468255      0.8433632      0.8590793      0.8042732      0.7821908    
   0.8520209      0.8745254      0.8562535      0.8348228      0.8273658    
   0.7636527      0.6990301      0.7365568      0.7418901      0.7892562    
   0.8055231      0.8191790      0.8006975      0.7477965      0.7228950    
   0.7607460      0.7554983      0.7280111      0.7420955      0.7763564    
   0.7880281      0.7851559      0.8117393      0.8274080      0.8207717    
   0.8055233      0.7866663      0.8073641      0.7943379      0.8003567    
   0.7907734      0.7877305      0.7948825      0.8025307      0.7958016    
   0.7731652      0.7567273      0.7777184      0.7808568      0.7845552    
   0.7764043      0.8191558      0.8654760      0.8721198      0.8674662    
   0.8543551      0.8427403      0.8464520      0.8526011      0.8193476    
   0.8011920      0.7913377      0.8041446      0.8312231      0.8266004    
   0.8111750      0.7762750      0.8410406      0.8785286      0.8624176    
   0.8646502      0.8745540      0.8720557      0.8536633      0.8376942    
   0.8288020      0.8449406      0.8494359      0.8642454      0.8746353    
   0.8888639      0.8786525      0.7697808      0.7997927      0.7774144    
   0.7477290      0.7194564      0.6957088      0.6631613      0.7253234    
   0.7555633      0.7435533      0.7844527      0.8008378      0.8143384    
   0.8022584      0.7996943      0.8068408      0.7983825      0.7904610    
   0.8409273      0.8642323      0.8722192      0.8892628      0.8536021    
   0.8063316      0.8125462      0.8064470      0.7329091      0.7143712    
   0.7376975      0.8053128      0.8221664      0.8146154      0.8275124    
   0.8296644      0.8254740      0.8385239      0.8085794      0.8264427    
   0.8400972      0.8575298      0.8580079      0.8293473      0.7817416    
   0.7581991      0.6623822      0.6155726      0.7525887      0.6636827    
   0.7088166      0.7937453      0.7911484      0.8061978      0.8165417    
   0.8312458      0.8692411      0.8567768      0.8120748      0.8237414    
   0.8162665      0.8049964      0.8084915      0.8563633      0.8558505    
   0.8623130      0.8738145      0.8738822      0.8136256      0.7955586    
   0.7206659      0.7335258      0.7667868      0.7530400      0.7646781    
   0.7676989      0.7762468      0.8084049      0.8376580      0.8250768    
   0.8052386      0.7963893      0.7784473      0.8208860      0.8229808    
   0.8217542      0.8600436      0.8609877      0.7880696      0.7836691    
   0.8287408      0.8485045      0.8264922      0.7611140      0.7664181    
   0.7962965      0.7972171      0.8386096      0.8366026      0.8125503    
   0.8183279      0.8445766      0.8940691      0.9070775      0.8672131    
   0.8654572      0.8511333      0.8212571      0.8088362      0.6890553    
   0.5797338      0.5992368      0.5838465      0.7405455      0.8119059    
   0.8038827      0.7839078      0.7425023      0.7630867      0.8418188    
   0.8814646      0.8458788      0.7577895      0.7663711      0.7741288    
   0.7940747      0.7674646      0.7564481      0.7932844      0.8245393    
   0.8298437      0.8490795      0.7950112      0.8063107      0.8017466    
   0.8384522      0.7633207      0.7351293      0.8158401      0.8372883    
   0.8204184      0.8157517      0.8113551      0.7931248      0.7771747    
   0.7692590      0.7852193      0.7755938      0.7043254      0.7345889    
   0.7769059      0.7864743      0.7185962      0.6537134      0.7226335    
   0.8244597      0.7896808      0.7448338      0.8250782      0.7934242    
   0.7558741      0.7832295      0.8058044      0.7641863      0.7715734    
   0.8219296      0.8212336      0.8442037      0.8388373      0.8144461    
   0.8168813      0.8147324      0.8175420      0.6819639      0.4032793    
   0.4706933      0.6484456      0.7241232      0.7064607      0.6979600    
   0.6830782      0.6695003      0.6879404      0.7708424      0.7291514    
   0.7328567      0.7514066      0.7310365      0.7819218      0.7940006    
   0.7219607      0.6764334      0.6621165      0.6729599      0.7269658    
   0.7198516      0.7065626      0.7108430      0.7382144      0.7358083    
   0.7478600      0.8022454      0.8176253      0.8151350      0.8154905    
   0.7983191      0.7943882      0.7146370      0.6832381      0.6485209    
   0.6591655      0.6305699      0.6693854      0.6978225      0.7304285    
   0.7316202      0.7177200      0.6462452      0.5746761      0.7163637    
   0.7404959      0.7412128      0.7084910      0.6868095      0.7226088    
   0.7222420      0.7274603      0.7097929      0.6835394      0.7087719    
   0.7578959      0.7679429      0.7498480      0.6978718      0.7747453    
   0.8128833      0.7505932      0.6195191      0.4600695      0.4514862    
   0.5945516      0.6504899      0.6337316      0.6444381      0.6411357    
   0.6333426      0.6557177      0.6497016      0.7119038      0.7189405    
   0.5707170      0.6127250      0.5113125      0.5100032      0.4591733    
   0.4927708      0.4782029      0.4778793      0.5580692      0.6170588    
   0.6542255      0.6124815      0.6035472      0.5322791      0.5607790    
   0.6859573      0.6813843      0.7240541      0.6881806      0.6470507    
   0.5759144      0.4252713      0.4316166      0.4437736      0.4058193    
   0.4820575      0.6158522      0.6462264      0.6581141      0.5737321    
   0.5109823      0.4957897      0.5770591      0.6237413      0.6718162    
   0.6735582      0.6399507      0.6111690      0.6815612      0.6980557    
   0.6941199      0.6317987      0.6075982      0.6556826      0.5823655    
   0.5299703      0.4664109      0.4951968      0.5205698      0.5285432    
   0.5371267      0.6013970      0.4989787      0.6720180      0.6271603    
   0.6645781      0.5990872      0.5874944      0.5667795      0.5683248    
   0.5134659      0.5772729      0.5895799      0.5554768      0.5088228    
   0.4840062      0.3216221      0.3652779      0.4189995      0.4686379    
   0.5108092      0.4862761      0.4666774      0.7065333      0.7135465    
   0.5444008      0.4885470      0.5001506      0.5246159      0.6712515    
   0.6389169      0.6164503      0.5976629      0.6154932      0.5023147    
   0.3152536      0.2926750      0.3142949      0.3458297      0.5212764    
   0.5861455      0.5960059      0.5474278      0.5360879      0.4674250    
   0.5402055      0.5548156      0.5811732      0.6291605      0.6440064    
   0.6924148      0.7033252      0.7084038      0.6727908      0.6201162    
   0.5854904      0.6070194      0.5662355      0.4342170      0.3776191    
   0.4035757      0.4656237      0.4608710      0.4888691      0.5407748    
   0.6803438      0.4208968      0.6752270      0.5954711      0.6080892    
   0.5374756      0.5388271      0.5489714      0.4757452      0.3988682    
   0.3788144      0.4384969      0.4422897      0.4771433      0.4611776    
   0.3390825      0.4014311      0.4172109      0.4519548      0.4777116    
   0.3960075      0.4218023      0.6383644      0.6955316      0.5552850    
   0.4114056      0.4489565      0.6231951      0.6783316      0.6684834    
   0.6830260      0.7015416      0.5776232      0.4101800      0.2436980    
   0.2186489      0.2893258      0.3510246      0.3955111      0.4661666    
   0.5087700      0.5049077      0.5013560      0.5660216      0.5750949    
   0.5240788      0.5890610      0.6711103      0.6977431      0.6636682    
   0.5773618      0.4709218      0.4625155      0.5333599      0.4813295    
   0.4433717      0.3542010      0.3830757      0.4272935      0.4419425    
   0.4715253      0.5488049      0.6152294      0.7171551      0.7752901    
   0.3870156      0.5849009      0.4921188      0.4307268      0.4725160    
   0.4212634      0.4111764      0.3220712      0.3391427      0.3612830    
   0.3701954      0.4328154      0.4938676      0.5029118      0.4126225    
   0.5531669      0.4583248      0.4572368      0.4802057      0.4296114    
   0.5056897      0.6549406      0.6043015      0.5393457      0.6108911    
   0.5636596      0.6969642      0.7076964      0.7435154      0.6909674    
   0.6176194      0.4503384      0.2789709      0.1850652      0.1935833    
   0.3226535      0.3758583      0.3576625      0.4747794      0.5369145    
   0.5415918      0.5610336      0.5373638      0.5226016      0.5525399    
   0.6472484      0.6707428      0.6536350      0.5108621      0.3770403    
   0.4125597      0.4283423      0.4610711      0.3803768      0.2781279    
   0.3003471      0.2885161      0.3596808      0.5140271      0.5303762    
   0.6015326      0.6994847      0.7125367      0.5880952      0.5792291    
   0.5943529      0.5743276      0.4351991      0.4169193      0.4494203    
   0.3171785      0.3441950      0.2809289      0.2999193      0.3790201    
   0.4040566      0.4907548      0.5731164      0.5553883      0.6295240    
   0.6245921      0.5698190      0.5989159      0.5435866      0.5555466    
   0.6300479      0.6744572      0.6073591      0.5597017      0.5374883    
   0.7319593      0.7013685      0.6863222      0.6707170      0.6473778    
   0.5955125      0.5304737      0.4395784      0.4120923      0.5120642    
   0.5568277      0.5873535      0.6671452      0.6945180      0.7127957    
   0.7238771      0.5974759      0.5831181      0.5899671      0.6347086    
   0.6278533      0.6406548      0.5050287      0.3324884      0.3308791    
   0.2811887      0.2218880      0.2158846      0.2586000      0.2621664    
